# .PCD v0.7 - Point Cloud Data file format
VERSION 0.7
FIELDS x y z rgba
SIZE 4 4 4 4
TYPE F F F U
COUNT 1 1 1 1
WIDTH 1109
HEIGHT 1
VIEWPOINT 0 0 0 1 0 0 0
POINTS 1109
DATA ascii
0.52699935 -0.087709934 2.6227126 4282600269
0.55408901 -0.018919557 2.5541465 4282863442
0.57104367 -0.21769051 2.7516725 4282731855
0.58439034 -0.52913684 3.0608447 4282797648
1.0364876 -0.15893126 2.680073 4282533704
1.1442308 -0.2489464 2.7711926 4282401604
1.1527253 -0.25485629 2.7853467 4282797135
0.80020106 -0.40188375 2.9431043 4282929750
1.2381529 -0.18470757 2.7148716 4281940538
1.2452672 -0.29420978 2.8261247 4282203711
1.254685 -0.44333196 2.971909 4282269504
1.2655634 -0.60894179 3.1411669 4282072125
1.2755049 -0.76520485 3.2954228 4282335297
0.93112183 -0.38002548 2.9283609 4282666320
0.6674667 -0.23881301 2.7854319 4282732628
0.30649793 0.17673653 2.3863616 4283459699
0.76492774 0.0070050061 2.5443506 4282865244
1.1880183 -0.75524098 3.2907786 4282467397
0.80954492 0.10965248 2.4495964 4283721582
1.2364264 -0.14957324 2.6907711 4282269760
1.2444069 -0.27419534 2.8150344 4282203967
1.2549398 -0.43384534 2.9744663 4282137918
1.2632948 -0.56470281 3.1079371 4282335297
1.2743467 -0.73801512 3.2790067 4282203710
1.2864076 -0.92567807 3.4643505 4282335553
1.2903264 -0.96877104 3.5057044 4282401089
0.55188948 -0.077142082 2.6319861 4283062880
0.18566978 0.0050357282 2.5622735 4283589223
1.0174637 -0.48143563 3.0305252 4282665806
1.0289912 -0.075945273 2.621407 4282534219
0.31623849 0.17445725 2.3924487 4283919734
0.33073157 -0.0094786584 2.5748181 4283259745
0.80277181 -0.08319512 2.6436312 4282996316
0.8167026 -0.012765028 2.5767398 4282930780
1.2357197 -0.12927862 2.6809063 4282401346
1.2448775 -0.27226126 2.823709 4282006332
1.2549075 -0.43027216 2.9783969 4282072125
1.2655787 -0.59275603 3.1458914 4282137918
1.276566 -0.76433218 3.3147457 4282335296
1.2826284 -0.86940587 3.4103162 4282466882
1.2907151 -0.9665308 3.5123391 4282335296
1.3033147 -0.93702668 3.4803348 4282466882
0.53524786 0.15727574 2.4139662 4283722356
0.55896002 -0.053596057 2.6259637 4283194210
0.62544769 -0.23709807 2.8086457 4282995801
0.25829777 -0.25842345 2.8390665 4283127129
1.0847021 -0.7509017 3.3101616 4282401604
0.70320868 -0.13684905 2.7085176 4283391846
0.72754663 -0.12738197 2.6924314 4283128415
0.37581742 0.17112611 2.4084327 4283525749
0.38580555 -0.044357017 2.627291 4283128675
1.2380657 -0.1589168 2.7190375 4281940538
1.245114 -0.26846477 2.82885 4281940539
1.2537582 -0.4029614 2.963701 4282401089
1.2635146 -0.55338478 3.1152916 4282072125
1.2739829 -0.71888405 3.2778292 4282401089
1.2847195 -0.88847113 3.4413915 4282335553
1.2911941 -0.97455418 3.5362272 4282137917
0.91540009 -0.03067247 2.6092417 4283392360
0.9381699 -0.19445236 2.7620516 4283193695
0.56547457 0.17440043 2.4061306 4283854456
0.59128803 0.17386627 2.4091902 4283723127
0.60461152 0.17435049 2.4081926 4283788919
0.61350429 0.16735308 2.4132867 4283919991
0.250516 -0.34201944 2.9353237 4282798678
0.69619411 0.17602433 2.4068937 4284182906
0.70257306 0.17833355 2.4029841 4284445820
0.7277894 0.17408697 2.4085846 4284117113
0.7470175 -0.072247684 2.6545453 4283127645
0.75298208 -0.013688006 2.5913122 4283194466
0.76105118 -0.34140393 2.9290295 4282798164
1.2355822 -0.11538129 2.6825101 4282401346
1.244972 -0.25941616 2.8293428 4282269761
1.2551632 -0.41410458 2.986568 4282203967
1.2647963 -0.56546593 3.1368952 4282072125
1.2753278 -0.72194713 3.2929921 4282203967
1.2855964 -0.89327788 3.4582181 4282401089
1.2923424 -0.98591691 3.5619164 4282006331
0.53666222 0.13943118 2.4549654 4283985012
0.2053602 0.0037069097 2.5966268 4283589482
0.66502732 -0.52053368 3.114069 4282666062
0.67422438 -0.051706418 2.6412847 4283655275
0.68484944 0.17241964 2.4179904 4284314235
0.69443709 0.17321536 2.4160786 4284445564
0.72777796 -0.050327267 2.6475275 4283259745
1.1946363 -0.32925117 2.9028635 4282599755
1.2368124 -0.12408283 2.704649 4282269760
1.2446072 -0.24800116 2.8264918 4281743159
1.2553605 -0.41369829 2.9940987 4282138174
1.2655867 -0.56936878 3.1503072 4282335296
1.2748289 -0.71678686 3.2954369 4282203967
1.2858601 -0.88796401 3.4642413 4282137918
0.91286182 0.086285837 2.5078497 4283721068
0.53610766 -0.0046660081 2.6081929 4283062364
0.56877434 -0.00060148537 2.6026487 4283325795
0.98537034 0.17888768 2.4126759 4284445305
0.99427235 -0.69018263 3.2801814 4282599498
1.0040257 -0.058409654 2.6492467 4283326052
1.0376425 -0.05915077 2.6452188 4282599754
1.0538034 0.10932627 2.4869924 4283984755
0.68186498 0.16490602 2.4322109 4283919476
0.73736334 0.021810815 2.5795453 4282996573
0.74152631 0.20612267 2.3976302 4284248699
1.2360978 -0.10524982 2.6944516 4282072125
1.2444791 -0.23578183 2.8252189 4282138175
1.2555913 -0.40723374 2.9973161 4282335554
1.2644078 -0.54355794 3.1345661 4281808953
1.2753322 -0.70866662 3.2996268 4282335297
1.2854575 -0.87382513 3.4606943 4282335296
1.2917904 -0.97995889 3.5654883 4282269503
-0.24458504 0.10419428 2.5201998 4283326567
1.000412 -0.27262273 2.8789861 4282731857
1.0180634 0.23949404 2.3694453 4284249214
1.031563 0.23967287 2.3686919 4283986300
0.68684828 0.20665452 2.4087744 4284117370
0.69518292 -0.1398969 2.7466054 4283128416
1.1512614 -0.49167988 3.0953608 4282995028
1.1660799 -0.34359145 2.9469762 4282665549
0.78594065 -0.065529495 2.6734042 4283589224
0.7978285 -0.0098311929 2.6182168 4283391588
1.2352792 -0.086129174 2.6850216 4282532676
1.2431086 -0.20286651 2.8057473 4282203968
1.2548138 -0.38661993 2.9889386 4282401090
1.2649673 -0.54520714 3.1449857 4282137918
1.2744795 -0.69442528 3.2940631 4282335040
1.2855865 -0.86375499 3.4626327 4282335296
1.2920072 -0.96900201 3.5675981 4282335297
0.89299697 0.23854665 2.3799322 4284577663
0.90542698 0.18405181 2.4335189 4284050548
0.91133195 0.23786327 2.3777413 4284643199
0.92000371 0.23889329 2.3784785 4284708992
0.93440044 0.23865671 2.3780327 4284774528
0.94656122 0.23885253 2.3778582 4284905857
0.95615077 0.23858213 2.3774331 4284840321
0.96273232 0.23899959 2.3760819 4284840321
0.97470653 0.23921463 2.3760271 4284774528
0.98707795 0.23939028 2.3756931 4284708992
0.99304962 0.23904589 2.3748772 4284643200
1.001958 0.23955494 2.3742399 4284512127
1.0161796 0.23932657 2.3746195 4284314750
1.0258276 -0.068389453 2.6813745 4283391331
1.0339553 0.1425122 2.4716191 4283458154
1.0431846 0.23969316 2.3732452 4283723642
0.65356499 0.23466566 2.3897851 4284117628
0.6670652 0.23484448 2.3890316 4284117628
1.0949805 -0.38019228 2.9929805 4283324509
0.69406557 0.23520213 2.3875248 4284052092
0.70531809 0.19731429 2.428545 4283919734
0.71745604 0.23629357 2.3893809 4284117628
0.92638242 -0.011404328 2.6285386 4283523432
0.86954278 0.034789264 2.585762 4283721839
0.74446201 0.23664019 2.3879273 4284117885
0.75585449 0.17779312 2.4466791 4283919734
0.76983118 0.21837209 2.406565 4284314235
0.77237052 0.23654571 2.3866334 4284249213
0.78497118 0.23716013 2.385747 4284314749
0.79613459 0.23687078 2.3854041 4284314750
0.8038249 0.23656124 2.38519 4284380286
0.81286401 0.23705707 2.3847442 4284314749
1.0719999 0.036997013 2.5796149 4282929750
1.1641215 -0.13977996 2.7522647 4282533962
1.127326 -0.27675021 2.8916082 4282666063
0.86593926 -0.026135266 2.6502075 4283457639
1.1499566 -0.49069032 3.1025407 4282929492
1.2954479 -1.0122968 3.6236215 4282269503
0.91681659 0.15271048 2.4664383 4284182133
0.92416155 0.20331678 2.4116707 4284576892
0.52841753 0.23386729 2.3995566 4283788920
0.66896373 0.17885208 2.4494703 4283722354
0.54192013 0.23404057 2.3988297 4283920248
0.75956231 0.087416947 2.5375905 4283721839
0.4290587 0.23222733 2.405345 4283920248
0.16385925 0.22918817 2.4191797 4283525749
0.58502507 0.15404119 2.4804878 4283524203
0.59541988 0.23419206 2.3966208 4284314492
0.60460079 0.18543273 2.4462068 4283787891
0.51251119 0.17206362 2.4636724 4283524977
0.42040133 0.23248088 2.4053707 4283657335
0.83898705 0.23785344 2.3828392 4283986299
0.64994168 0.23542704 2.3930151 4284117628
0.39131787 0.21788816 2.4209814 4283788663
0.46909285 0.23261911 2.4032154 4283920505
0.68618602 0.071933962 2.5566528 4283655790
0.48617399 0.23104233 2.4040008 4283920505
0.50084388 0.23284823 2.4015946 4283920505
1.1208352 -0.17874043 2.7936914 4283126871
0.72656 -0.22034737 2.8519077 4283259745
0.32475007 0.22994655 2.4116483 4283657078
0.64355421 0.048812345 2.5822856 4283589997
0.35573712 0.23121071 2.4093127 4283854456
0.36583179 0.23114488 2.4088883 4283919992
0.37715954 0.18578231 2.4548242 4283656563
0.1788111 0.22873613 2.4189334 4283657076
0.19086607 0.2295348 2.417726 4283788662
0.4063468 0.23168263 2.4067235 4283920248
0.8244164 0.02627714 2.6071713 4282732370
0.66930288 0.050300073 2.5851524 4283128158
0.84470892 -0.11038001 2.7403235 4282864215
0.77527988 -0.08656045 2.7179725 4283325538
0.86447155 -0.32743889 2.9571881 4282798165
0.60058784 -0.12755978 2.7637215 4283457382
0.63847494 -0.12447543 2.7584343 4283457638
0.48844266 0.1700229 2.4664741 4283919476
0.084402502 0.22191933 2.4302573 4283591027
0.29899099 0.23023234 2.4125085 4283788407
0.31238371 0.23109448 2.4111848 4283722870
0.52736908 0.23272437 2.4009016 4283986042
0.3271175 0.19496441 2.4474792 4283591027
0.13604404 0.22784983 2.4213305 4283591285
0.15528359 0.21796615 2.4306481 4283525491
0.16265456 0.22772428 2.4202461 4283526005
0.186225 0.089540347 2.5665069 4283391331
-0.21417907 0.22433606 2.4395285 4284050804
-0.2006781 0.22450934 2.4388018 4284116597
-0.19535413 0.22370952 2.4390478 4284116597
-0.32113227 0.22250982 2.4455533 4283787889
0.1317988 0.17231919 2.4778907 4283722097
-0.1646664 0.22497153 2.4368632 4283656818
-0.15341106 0.22511601 2.4362574 4283525233
-0.14667387 0.22520247 2.435895 4284182390
0.1387016 0.22297798 2.4267547 4283853941
0.28537637 0.23074785 2.4126387 4283854199
0.15791331 0.18372242 2.4672718 4283787376
-0.10505688 0.21484059 2.4443653 4283853683
0.10985564 0.22849503 2.4220867 4283919734
0.12061968 0.14473405 2.5107074 4283523689
-0.079167977 0.22606893 2.4322612 4283853683
-0.065666713 0.22624221 2.4315343 4283656561
-0.053460643 0.20586827 2.4518821 4283459182
0.77430952 -0.45836034 3.0989208 4282599498
0.066618115 0.11666063 2.540606 4283326567
-0.023463389 0.22563262 2.4302194 4283459954
-0.0031385347 0.22177897 2.4328332 4283919733
0.72280526 0.03499528 2.6069584 4282863699
1.2454339 -0.22037204 2.8493655 4282138175
1.2536634 -0.34621096 2.9778748 4282401090
0.99089223 -0.36038342 2.9984601 4282204482
0.25047773 -0.051538676 2.7049675 4283259230
0.36191615 -0.30721807 2.9614568 4282930006
-0.75419456 0.21740495 2.468596 4283787375
-0.53892082 0.21922523 2.4573123 4283853168
-0.32363874 0.22105744 2.4460392 4283919219
-0.72496676 0.21703908 2.4677019 4283458412
-0.71369499 0.21792476 2.4664159 4283984496
-0.49966329 0.21992525 2.4553144 4283918962
-0.48871604 0.22020161 2.4549074 4283787633
-0.44128484 0.17558065 2.4986987 4283655789
-0.53874385 0.21944331 2.457113 4283918961
-0.25468183 0.2238162 2.4417086 4283787890
-0.45043808 0.22130367 2.4522457 4283919218
-0.64619511 0.21879111 2.4627826 4284050289
-0.4982346 0.21997505 2.4549429 4284050546
-0.21557251 0.22253898 2.4403074 4284050804
-0.61919498 0.21913767 2.4613292 4283984753
-0.60501516 0.21864367 2.4612041 4283721839
-0.59514439 0.19298783 2.4884439 4283392874
-0.58560371 0.18234769 2.4991252 4283326825
-0.57434052 0.21912618 2.46102 4283327596
-0.56083131 0.2192971 2.4602671 4283393389
-0.55169421 0.22000405 2.457696 4283459182
-0.95760953 0.21357965 2.4796047 4283393132
-0.80880952 0.2160465 2.4710135 4283458925
-0.38800144 0.022273431 2.651674 4283392102
-0.78871661 0.21628648 2.4703896 4283392876
-0.91709769 0.21411735 2.4774399 4283064426
-0.76829678 0.21657465 2.4688683 4283195755
-0.89098817 0.21327934 2.4761312 4282735463
-0.88919127 0.21567228 2.4758625 4282735463
-0.32863683 0.034398612 2.6424892 4282536796
-0.72804338 0.21669079 2.4676378 4282998377
-0.23239844 -0.060439311 2.7326064 4282733661
-0.83458889 0.2156574 2.4736242 4282406500
-0.68657655 0.21727569 2.465519 4282998378
1.2363659 -0.069652401 2.710748 4282072382
0.42199484 -0.0015979899 2.6600769 4282732115
0.43505153 -0.13391493 2.7929296 4282797907
0.34409449 -0.17125872 2.8353496 4282732371
1.2755007 -0.67821616 3.3193512 4282335296
1.2859852 -0.83805037 3.479455 4282269503
1.2933562 -0.95665669 3.596823 4282137917
-0.49020115 0.13544311 2.5501058 4282866015
-1.0926481 0.21178736 2.4868202 4283327594
-0.26463407 -0.0027613565 2.6807661 4283062622
-1.0761822 0.21302447 2.4874513 4283327338
-0.51946062 0.13862075 2.5463905 4283062880
-1.0511836 0.21359311 2.4845822 4283327339
-0.42221153 -0.091736108 2.7734222 4282931294
-1.0238154 0.213018 2.4836121 4283327339
-1.0116251 0.21286273 2.482491 4283327339
-0.99664509 0.21335781 2.4821231 4283327339
-0.98349738 0.21337566 2.4812679 4283327339
-0.9730081 0.21385808 2.4811187 4283327595
-0.96633673 0.21341591 2.4818053 4283393132
-0.95373231 0.21366866 2.4815948 4283393132
-0.9349221 0.21454471 2.480866 4283327083
-0.92342591 0.2080753 2.4855943 4283261290
0.11892192 -0.034037933 2.7028346 4282732628
0.76349163 -0.41893321 3.0713861 4282402633
0.36238429 -0.33952203 3.0058336 4282666321
0.39552695 -0.50872815 3.171936 4282468941
0.81469774 -0.075131238 2.7376051 4282798164
1.2365131 -0.062164377 2.7132785 4282269761
1.2454065 -0.20160119 2.8517201 4282072125
1.2552779 -0.35300303 3.0061276 4282006332
1.2661195 -0.5252592 3.1752119 4282203967
1.2750459 -0.6610955 3.3070941 4282203710
1.2843828 -0.80450708 3.4579194 4282335296
1.2987626 -1.0338492 3.6825848 4282335040
1.3017993 -1.0322123 3.682919 4282335296
-1.0896754 0.21137545 2.4901404 4283327594
1.0645185 -0.069302127 2.7221284 4282533704
1.073887 -0.39337969 3.0575938 4282798421
1.0847458 -0.014624311 2.6771057 4282665549
1.0913676 -0.77999014 3.4365239 4282533962
0.6965453 -0.67820632 3.3426452 4282533961
0.74534088 -0.10577723 2.77877 4282798163
0.374771 0.08197809 2.5948935 4283523173
1.2353225 -0.03793443 2.6974111 4282269761
1.2450328 -0.18907598 2.8483205 4282204224
1.2547555 -0.34097892 2.9986005 4282203968
1.2643259 -0.4868505 3.1466012 4281940282
1.2749305 -0.65119094 3.3131533 4282203711
1.2854755 -0.81217003 3.4750097 4282137918
1.294632 -0.96197402 3.6208339 4282203710
1.3006729 -1.0364933 3.6940384 4282335039
0.95424247 -0.17773713 2.8486142 4282533962
1.0090338 -0.077700235 2.7420223 4282533705
1.0399257 -0.0075495765 2.6717787 4282731598
1.1081126 -0.76277417 3.435282 4282533705
-0.051251497 0.17417951 2.5248859 4283919476
-0.034103684 0.1745486 2.5255373 4283985268
1.2371914 -0.058226421 2.7283652 4282269761
1.2455629 -0.1855202 2.8581989 4282335553
1.2553798 -0.3407706 3.0113633 4282269504
1.2655984 -0.50088197 3.1700077 4282072125
1.2748322 -0.63941932 3.3084564 4282203710
1.283217 -0.77156872 3.4425311 4282138174
1.2950482 -0.95610982 3.6268108 4282137917
1.3018281 -1.0454013 3.7168245 4282335040
0.95707244 -0.13296463 2.8181877 4282336068
0.96941292 -0.59096229 3.2730165 4282600013
0.99388802 -0.3525795 3.0317252 4282599498
1.0281014 -0.30891794 2.9884372 4282533961
-0.19046995 0.17206009 2.5300596 4283853426
-0.18500946 0.16788857 2.5401726 4283853426
0.70537972 -0.41753575 3.1083002 4282666063
0.32395682 -0.13098612 2.8352237 4283326310
1.2140105 -0.59159511 3.2724628 4282270018
1.2360377 -0.032205127 2.7134397 4282269760
1.2445726 -0.16570945 2.8461852 4282269761
1.2550914 -0.32584456 3.0053449 4282138174
1.2643285 -0.47105855 3.1502891 4282203711
1.2749149 -0.63456702 3.3147507 4281940538
1.2857907 -0.8052628 3.4840789 4282269760
1.2944388 -0.94034189 3.6224031 4282203710
1.3011482 -1.049915 3.7246914 4282335296
0.56949329 -0.061141718 2.7671485 4283128930
0.57647038 -0.1049278 2.8055849 4283259744
0.19223389 0.11950037 2.5980721 4283656818
1.0436517 -0.1610983 2.8546917 4282270790
0.67810804 0.029640939 2.6723244 4282930779
1.1197619 -0.53483355 3.2202926 4282533705
0.34471536 0.09961459 2.6114454 4283459440
0.81668854 -0.46175846 3.1628754 4282864214
1.2352428 -0.012408149 2.701277 4282270017
1.245103 -0.16461931 2.8553486 4281874746
1.2540921 -0.3064467 2.9941328 4282072381
1.2655652 -0.48092699 3.172641 4282137918
1.2750919 -0.62988514 3.3178899 4282072124
1.2844224 -0.77603018 3.4650269 4282269503
1.293821 -0.91564208 3.6071329 4282072124
1.3022041 -1.056227 3.7438064 4282401089
0.98386621 -0.38903019 3.0883279 4282665549
0.61621773 -0.085592397 2.7957969 4283325538
0.63345236 -0.004347322 2.716259 4283127901
0.27356681 0.1731673 2.5471361 4283460212
0.30664223 0.16936785 2.5545053 4283459956
0.31502566 0.17501163 2.5450895 4283525749
0.73273563 0.0022191554 2.7045462 4282930007
0.37398854 0.17544441 2.5440071 4283460213
1.2350945 -0.0023341896 2.70189 4282269761
1.2450933 -0.15985012 2.8562362 4282269761
1.2548553 -0.30579445 3.0075369 4282072381
1.2637539 -0.44637749 3.14884 4282401090
1.2748994 -0.62313133 3.3213184 4282203967
1.2843987 -0.76848382 3.4674652 4282269504
1.2947112 -0.92842746 3.6275578 4282137917
1.3023357 -1.0472002 3.7417889 4282335296
0.55469209 0.15361544 2.5667448 4283853941
0.57772422 0.17590643 2.5473282 4284051578
1.0088418 -0.37470183 3.0821466 4282337098
1.0804329 -0.39734328 3.1050797 4282665549
1.102936 -0.66196406 3.3748116 4282599497
1.1465483 -0.12163492 2.8340123 4282467655
0.77528632 -0.030436203 2.7589297 4283259744
0.79263031 -0.09784355 2.8139882 4283259745
1.2354947 -3.9843377e-05 2.7099233 4282203968
1.2459775 -0.16599488 2.8733661 4282269761
1.2550826 -0.30632305 3.0152769 4282006589
1.2650892 -0.46217459 3.1708345 4282203967
1.2747583 -0.60830569 3.3143668 4282138174
1.2851146 -0.77109587 3.4801068 4282269503
1.2964826 -0.94480914 3.6529329 4282137917
1.3030593 -1.0471511 3.759654 4282203710
0.94829059 -0.058090843 2.7746625 4282798421
0.57467234 -0.081565797 2.8106291 4283062365
0.99548984 -0.21263844 2.9378288 4282930521
1.0105939 -0.61891723 3.3349659 4282666063
1.0386314 -0.69351745 3.4192944 4282533705
0.65294516 0.024291709 2.7037416 4283457895
1.1044128 -0.20667949 2.928246 4282797392
0.76077044 -0.12157952 2.8538094 4283193952
1.2354023 0.0087360004 2.7106166 4282269761
1.2454883 -0.14789589 2.8668478 4281875002
1.2550513 -0.2982105 3.0166774 4282466883
1.2650827 -0.45278811 3.1695032 4282072381
1.2747583 -0.60180449 3.3212209 4282203711
1.2840728 -0.74598485 3.4667499 4282006331
1.2937635 -0.8993631 3.6181514 4282335296
1.3025362 -1.0292444 3.7487879 4282203453
0.54532361 0.17159414 2.563679 4283920249
0.57529771 0.065264098 2.6783214 4283326309
1.0260479 -0.37459409 3.1044686 4283127645
1.0339365 -0.50944996 3.2391231 4282270276
0.67716026 0.14519823 2.5944841 4283590253
0.6845808 0.13109137 2.6059911 4283853941
1.1151727 -0.51942152 3.2458692 4282467911
0.30179811 0.019989222 2.7328188 4283523174
1.1365492 -0.4554157 3.1886797 4282138433
1.1738572 -0.47045308 3.2061872 4282270275
0.81966794 -0.21059337 2.9519033 4282534734
1.2363915 0.00084310025 2.7276075 4282335554
1.2455525 -0.13911693 2.8701763 4282466883
1.2547281 -0.28310812 3.0090055 4282335297
1.2648782 -0.44134536 3.1707146 4281677366
1.2750083 -0.59637409 3.3246748 4282203711
1.2858542 -0.76560974 3.4954734 4282203711
1.2955953 -0.91504717 3.6456041 4282006075
1.3052473 -1.0658398 3.7956409 4282137917
0.94057363 0.0013484042 2.7302074 4283259744
0.95513093 -0.22519387 2.9677732 4282731599
0.96504593 0.15799262 2.5804887 4283786603
0.58151984 -0.28101155 3.0312767 4282863957
1.0095607 -0.18745619 2.9292531 4282863700
1.1191928 -0.51120561 3.2542586 4282533705
1.1737061 -0.35402468 3.0975816 4282600012
1.2350719 0.031152919 2.7095835 4282269761
1.2446601 -0.11839264 2.8579094 4281743160
1.255195 -0.28353783 3.0230954 4282269761
1.2656027 -0.44470978 3.1811132 4282335297
1.2746961 -0.58358264 3.3251119 4282072381
1.2841227 -0.72944736 3.4709702 4282203710
1.2941362 -0.88711631 3.6291714 4282269504
1.3025458 -1.0186113 3.7575994 4282137917
1.3112364 -1.0508634 3.799825 4282137660
0.15572304 0.1599133 2.6169348 4283457895
0.98456073 -0.19009671 2.9489737 4282666064
1.0143752 -0.4267804 3.1789715 4282336068
1.1122859 0.2350173 2.5188148 4284052864
1.1267631 0.15876198 2.5985742 4283788405
1.1415108 0.23540446 2.5171838 4284184193
1.1564026 -0.18766509 2.9380965 4282401862
1.1609699 -0.51064688 3.2645195 4282797907
1.2357062 0.027982466 2.7214935 4282269760
1.2447344 -0.11252477 2.8612833 4282269761
1.254238 -0.25752395 3.0042171 4282269761
1.2643272 -0.41828087 3.1661148 4282137917
1.2842754 -0.72504437 3.4756608 4282203710
1.2953882 -0.89628094 3.6473505 4282137917
1.303715 -1.0262372 3.7776155 4282203454
1.3102032 -1.0900862 3.8437994 4282072124
0.92232096 0.23250084 2.529417 4284774786
0.9369337 0.2326944 2.5286014 4284840578
0.95293045 0.074602984 2.6893835 4283722354
0.96781391 0.23292437 2.5299072 4284906114
0.99406356 0.0090412647 2.7558155 4284181619
1.0061857 0.23418793 2.5284388 4284709250
1.0155196 0.23354626 2.5290973 4284577921
0.81617308 0.23174924 2.5386643 4284380542
0.83078957 0.23193681 2.5378778 4284249214
1.0490665 0.23406763 2.5279503 4284052350
0.84540588 0.2321244 2.537091 4284117885
0.79144025 0.23109306 2.5404999 4284052092
1.07927 0.23512594 2.5245056 4283855485
0.87673938 0.089689583 2.680357 4283655276
0.88870347 0.23218483 2.5355294 4284052349
1.1067209 0.18301123 2.5781476 4283591025
0.70734316 0.22959052 2.5454674 4284380541
0.9195568 0.23265344 2.5334597 4284183935
1.1372678 0.23557337 2.5223279 4284184193
0.75619847 0.14912337 2.6252022 4283985269
0.79369187 0.20679447 2.5620618 4284314748
0.80425668 0.23122543 2.53916 4284511872
0.81590092 0.21610041 2.5542018 4284314492
1.0992717 0.095941596 2.6658764 4282995542
0.99734211 0.027177241 2.7384849 4282995286
1.0499701 -0.094396822 2.8611126 4282995029
1.0604287 -0.14161491 2.9046679 4283192922
0.93138951 -0.17105974 2.9421875 4283127643
0.94327277 -0.12525357 2.895838 4283588710
1.0897686 -0.28932649 3.0539789 4283390559
0.8907128 -0.37867001 3.151556 4283324765
0.82372922 0.085080482 2.6859386 4284182390
0.78172952 0.2310452 2.5410903 4284577663
0.72124815 0.2228478 2.5521526 4284117628
0.72839242 0.23013242 2.5441658 4284248956
0.86391306 0.10349158 2.6664534 4283852654
0.6891126 0.22974987 2.5459802 4284249212
0.84097886 0.17441392 2.5962765 4283984755
0.58335072 0.22831562 2.5515895 4284183163
0.59692788 0.22893532 2.550463 4284248956
0.602561 0.22126812 2.5584943 4284182907
0.61075735 0.1731497 2.6068747 4283985527
0.63515782 0.22198328 2.5562439 4284183420
0.24615657 0.22443333 2.5693398 4283657591
0.26077166 0.22462091 2.5685532 4283723127
0.2753956 0.22480859 2.5677664 4283986041
0.49255103 0.22710693 2.5567217 4283920506
0.29209697 0.044274252 2.7502284 4283590254
0.30462596 0.22518374 2.5661933 4284051577
0.52385217 0.22799741 2.5543957 4283986299
0.49796692 0.084010787 2.7009821 4283721583
0.55308372 0.22837259 2.5528226 4284052091
0.55958658 0.2273688 2.553853 4284051578
0.56769949 0.22856018 2.5520358 4284117628
0.58231521 0.22874776 2.5512493 4284183420
0.38376573 0.22494659 2.5632393 4284117114
0.39327422 0.22564811 2.5620592 4284051577
0.19856112 0.22115487 2.5742545 4283985527
1.0295137 0.12013533 2.6512659 4282929493
0.902134 0.051104635 2.7249854 4282797907
0.84520596 0.10273355 2.6729705 4283523173
1.1618201 -0.32460645 3.0954099 4282138432
1.2747015 -0.55946326 3.3291841 4282137918
0.6697576 -0.23466901 3.023989 4282667351
1.1582974 -0.7125299 3.4877417 4282401862
0.69055748 -0.42291284 3.2102556 4282798679
0.082843289 0.20306075 2.5978215 4283722612
0.10269821 0.22201526 2.5776546 4283722870
-0.02107623 0.2206312 2.5842211 4283722612
0.53660023 0.099907607 2.6897213 4282997087
-0.27996385 0.21768081 2.5976529 4283853939
-0.060612075 0.1923518 2.6148336 4283656562
0.021618849 0.22106774 2.5817997 4283591540
0.1644364 0.22193968 2.574873 4283788406
-0.031520255 0.22086947 2.5842829 4283722612
0.050852865 0.22145148 2.5802343 4283657077
0.20311928 0.12160657 2.6766942 4283524460
0.079796813 0.22181152 2.5787585 4283788662
-0.041770052 0.22015609 2.5851247 4283985270
-0.16305201 0.21918133 2.5913615 4284182390
-0.28198445 0.13554616 2.6817219 4283655789
-0.13720179 0.21818617 2.5910516 4284182390
0.28308332 -0.043800645 2.8447328 4283588967
-0.089980982 0.22011915 2.587429 4284182133
-0.075366683 0.22030671 2.5866425 4283985012
-0.06075234 0.2204943 2.5858562 4283853683
-0.67335606 0.16941297 2.6640418 4283523945
0.15959126 0.077124625 2.7234395 4283392618
-0.031523567 0.22086942 2.5842831 4283656818
-0.016909124 0.221057 2.5834966 4283722611
-0.0022946494 0.22124457 2.5827103 4283788661
1.2355732 0.052622229 2.725626 4282203968
0.50528377 0.071001694 2.7263575 4282732627
0.72776085 -0.072638974 2.8647182 4282797649
-0.1700583 0.048793364 2.7677448 4283260258
0.38443935 -0.067685135 2.8672359 4282996572
0.19164275 -0.09003073 2.8987319 4283062364
-0.75677192 0.20931023 2.6237361 4283327595
0.68862849 -0.59273726 3.3910229 4282665805
0.2877275 -0.44827807 3.2514529 4282601042
0.10046235 0.17018287 2.6308248 4283787890
-0.48297501 0.15427187 2.671818 4283721067
-0.6745255 0.2126168 2.6188865 4283984497
-0.65664613 0.17805058 2.6536906 4283721325
-0.64465278 0.1782822 2.6538141 4283523946
-0.2228955 0.077286482 2.7420394 4283391844
-1.0398383 0.20792818 2.6385458 4283327082
-0.88952976 0.20902808 2.6305285 4283524460
-0.73850828 0.2078615 2.6259434 4283524717
-0.86029786 0.20941179 2.6289628 4283327595
-0.70920467 0.2114747 2.6209409 4283262059
-0.56521726 -0.0068990737 2.8393011 4283260516
-0.76219922 0.21149154 2.6236045 4283327595
-0.74758643 0.2116791 2.622818 4283393388
-0.12407731 -0.034405909 2.8517594 4283062622
-0.73297364 0.21186665 2.6220317 4283459181
-0.51413989 0.013314779 2.8172798 4283326309
-0.90505344 0.20861346 2.6321676 4283524460
-0.89371568 0.20980358 2.630682 4283524717
-0.88648689 0.2083094 2.6317236 4283458668
-0.870579 0.20860167 2.6307847 4283655789
-0.31727698 0.094778098 2.7328398 4283194208
-0.85613537 0.20476872 2.6326644 4283524460
-0.84742069 0.20216307 2.637044 4283655789
-0.83526582 0.21055378 2.6275368 4283787374
-0.8206532 0.21074131 2.6267502 4283787375
0.98949176 -0.0065788329 2.8045108 4282336069
0.62998366 -0.036796514 2.8394902 4282402377
0.22966295 0.020135187 2.7950022 4282995542
0.93560612 -0.25660899 3.053298 4282072896
-1.0503041 0.2069177 2.6391389 4283261545
-0.96677417 0.20886591 2.6346138 4283392875
1.0201197 -0.65785497 3.4542468 4282072896
-0.60997087 0.13603574 2.6962836 4283326567
-0.59743768 0.067550346 2.7665212 4283128930
-0.92293727 0.20942855 2.6322546 4283458667
-0.90832484 0.20961609 2.6314683 4283589996
0.1249987 -0.14500239 2.9630826 4282798678
-1.0982865 0.20717803 2.6416912 4283327337
-0.87933981 0.19986963 2.6410298 4283392873
-0.66700619 0.13490212 2.7034559 4283128930
-1.0690626 0.2075531 2.6401186 4283327338
-0.23744461 0.011840601 2.8142581 4282931035
-0.4290069 0.01870729 2.813199 4283062880
1.0124012 -0.54657328 3.3437386 4282270275
0.63367534 0.12489347 2.6823893 4282271048
0.24793035 -0.18753073 3.0012255 4282732371
0.29262185 -0.38106096 3.1991491 4282666320
-0.10316674 -0.12795049 2.9504099 4283128415
1.1317855 -0.30592215 3.1018019 4282203968
-0.47717875 0.11175473 2.7207141 4283128416
0.62954205 -0.30781665 3.116832 4282468426
-0.026677299 -0.15827836 2.982707 4282930265
-0.83086067 0.21016805 2.6301203 4283787374
1.2338976 0.097017795 2.703567 4282203711
1.2452607 -0.078646138 2.8802195 4282269760
1.2561612 -0.24915008 3.0478523 4281940796
1.2655715 -0.39582366 3.1943166 4282203711
1.2753136 -0.54710281 3.3473365 4282072125
1.2849162 -0.6975438 3.4950454 4282203710
1.2960016 -0.863868 3.6666324 4282138174
1.3074362 -1.0411149 3.8382699 4282006331
0.55552667 -0.046755489 2.8650937 4282666321
0.56365424 -0.14596777 2.9619238 4282928978
1.0003811 -0.3456018 3.1582286 4282467912
1.0123513 -0.24088499 3.0586216 4282336068
0.64402723 -0.048189424 2.869844 4282403148
1.0851662 -0.59006131 3.400589 4282336068
1.1187738 -0.11270276 2.9275539 4282006845
0.73872995 0.14774485 2.6755462 4282665806
-0.074792296 -0.019643433 2.8573425 4283128672
0.75666839 0.13023858 2.6816854 4282402633
0.76192546 -3.72082e-05 2.821095 4283721067
0.38430747 -0.072655156 2.9056811 4283260259
1.2364699 0.066305704 2.7457521 4281940539
1.2431043 -0.038973816 2.8475258 4282072125
1.2526383 -0.18603909 2.9965451 4282269760
1.2627931 -0.34592968 3.1546192 4282006075
1.2747127 -0.52234948 3.3369408 4282072124
1.2861574 -0.7053495 3.5147271 4282137918
1.2946863 -0.84145194 3.6511371 4282137917
1.3037357 -0.98187298 3.7904804 4282006331
0.54598027 0.13460605 2.6957989 4283523431
0.17683759 0.068545565 2.773284 4283457638
1.0265292 -0.50200266 3.3227923 4282467912
-0.16418245 0.15818101 2.6965914 4283128672
1.0897416 -0.54368502 3.3668492 4282336068
0.73389351 -0.063802876 2.8946652 4283193436
0.76610339 -0.22009735 3.0553761 4282666577
1.2331693 0.12535554 2.693646 4282269760
1.2440039 -0.044672601 2.8646231 4281808952
1.2558314 -0.22858234 3.0462196 4282401090
1.2643512 -0.36053416 3.1799402 4282006588
1.2751235 -0.53202528 3.3482103 4282138174
1.2851533 -0.68391019 3.5031404 4282006588
1.2950621 -0.83425683 3.6530838 4282203710
1.306039 -1.0046858 3.8265295 4282203710
1.3133008 -1.1195197 3.937006 4282137660
0.99218684 -0.0016060397 2.8306446 4283984754
-0.62735969 0.16438991 2.7026949 4283590253
1.0479512 -0.37774727 3.2064075 4282468169
1.086584 0.015203227 2.8181903 4283787376
0.70679891 -0.35703999 3.1911354 4282798420
0.75187558 -0.16727209 3.0068905 4283259488
0.77515775 -0.016170353 2.8503747 4282995800
1.2059873 -0.55649477 3.3876522 4282270018
1.2298688 0.16609614 2.6699066 4282467140
1.2349201 0.10455973 2.7255147 4282269761
1.2435302 -0.027850574 2.8589687 4282203967
1.2550886 -0.20892873 3.0388052 4282006332
1.2653413 -0.36490357 3.1963615 4282203710
1.274436 -0.51142979 3.3386726 4282137918
1.2856482 -0.68258739 3.5131624 4282138174
1.2932423 -0.79904842 3.6298091 4282006332
1.3026812 -0.94783551 3.7798963 4282072124
0.95541871 0.034606174 2.8075633 4283061593
0.97102529 -0.38006374 3.2268848 4282863699
1.0451285 0.089925274 2.7555068 4282270276
-0.17480293 0.15744996 2.718574 4283458410
-0.53058547 -0.077521488 2.9594736 4282733915
0.29354244 0.061892323 2.7952754 4283061849
1.1210363 -0.84682095 3.6833556 4282072639
0.80335832 -0.088323712 2.9374413 4282731856
1.236294 0.091914758 2.7490058 4282203968
1.2454342 -0.04971154 2.8903131 4282269760
1.2539177 -0.18271416 3.0209041 4282269761
1.2642164 -0.34197974 3.1823432 4282269504
1.2753772 -0.51613849 3.3544586 4281940539
1.2857432 -0.67616546 3.5144749 4281940795
1.2967201 -0.84689075 3.6892571 4282269504
1.3037072 -0.95554477 3.7933168 4282137918
1.3135225 -1.102008 3.9434671 4281874745
0.54614651 0.0095973881 2.8592365 4283193951
0.1852096 -0.11867937 2.9845321 4283260001
-0.54783261 -0.077470437 2.9602337 4282734172
1.1088606 0.015162577 2.839071 4282270275
-0.1065793 0.16708869 2.7122893 4283722354
1.1541696 -0.55658871 3.4088757 4282138689
0.36736709 0.10046663 2.7654791 4283853683
1.2337043 0.13879426 2.7098665 4282203711
1.243956 -0.016787199 2.8701813 4282203968
1.2549754 -0.19175684 3.0406303 4282269761
1.2664922 -0.36499467 3.2171044 4281874489
1.2747819 -0.4992263 3.3482811 4282203967
1.285128 -0.65968484 3.5092633 4282138174
1.2942894 -0.80123472 3.6504807 4282072125
1.307525 -1.0055846 3.8553777 4282269503
0.94087416 -0.062455788 2.9277244 4282336583
0.9746269 -0.44778517 3.3030643 4282402119
0.99507535 -0.31229419 3.1769319 4282533962
-0.2134186 0.16626674 2.7200763 4283787889
-0.16503972 0.16592047 2.7229929 4283853426
1.1281483 -0.37000161 3.2362971 4282336582
0.75398147 0.033846766 2.8368392 4283391073
-0.037502866 0.16649286 2.7273836 4283853939
0.79675245 -0.21825787 3.082871 4283127900
1.2296828 0.18184456 2.670469 4282467139
1.2352475 0.12328289 2.7365978 4282204224
1.2460518 -0.043942511 2.9037716 4281808695
1.2547169 -0.17968932 3.0381303 4281743160
1.2640191 -0.32094514 3.182894 4282203967
1.2751991 -0.49692321 3.3569078 4282072125
1.2859449 -0.65894967 3.522763 4282138174
1.2941437 -0.79267025 3.6501715 4282006331
1.3024184 -0.92378557 3.7807546 4282203711
1.3157375 -1.1250212 3.9840603 4282335039
1.3208669 -1.1523639 4.0125022 4282466625
0.6344651 0.09195362 2.787885 4283193694
1.1048094 0.1048608 2.7614784 4282467653
1.1621931 -0.47429311 3.3411183 4282534219
1.1840879 -0.80375713 3.6796193 4282467912
1.2178255 -0.93188226 3.8083158 4282401604
1.229497 0.19759299 2.671031 4282467140
1.2367636 0.10936282 2.761688 4282401347
1.2457991 -0.030010363 2.9021428 4282072382
1.2556518 -0.18465905 3.0551324 4282203968
1.2662303 -0.35228077 3.2194009 4281940538
1.2723899 -0.44433743 3.3139639 4282269504
1.2824029 -0.60439086 3.471519 4282006588
1.296118 -0.81307155 3.6827426 4282203710
1.3059061 -0.96701819 3.8354559 4282006331
1.3142972 -1.0985537 3.9657326 4282269247
1.3205303 -1.161602 4.0394125 4282466625
1.0119222 -0.36203584 3.2470214 4282995028
0.20321502 0.15652725 2.7431865 4284181618
1.108026 0.10420144 2.7739646 4282270791
1.1288989 -0.66901553 3.5486808 4282665033
0.36532491 0.15375659 2.7450085 4283854199
0.37178946 0.1735431 2.7240167 4283985785
1.2348223 0.14548948 2.7336221 4282203968
1.2450113 -0.0099722324 2.8932328 4282072125
1.2530538 -0.13629197 3.0172014 4282072382
1.2637486 -0.30090263 3.1833732 4282138175
1.2760047 -0.49602094 3.3742144 4282006332
1.2890561 -0.69872534 3.5772479 4281677367
1.2931833 -0.7655133 3.6417298 4282006332
1.3048776 -0.93891406 3.8210659 4282072125
1.3133236 -1.0754128 3.9537272 4282203710
1.3209068 -1.1592797 4.032486 4282466625
0.5641402 0.1743315 2.7272956 4284380285
0.5885337 0.0027736377 2.8920929 4282534220
1.0137087 -0.031092271 2.9205451 4283259229
1.1069227 -0.39806256 3.285995 4282797906
1.1656771 0.10281807 2.7833941 4282731342
1.1962249 -0.51986521 3.4033799 4282204483
1.2357136 0.14098758 2.7500179 4282269761
1.2466031 -0.029105427 2.91995 4282138175
1.2558005 -0.16678572 3.0601039 4281875003
1.267372 -0.35254678 3.2405746 4281940538
1.2744367 -0.46085596 3.3476498 4281940539
1.2841903 -0.61397165 3.501596 4282006588
1.2961367 -0.79207635 3.6835098 4281874745
1.3001226 -0.86568755 3.7506063 4282335553
1.3152236 -1.0941585 3.9834137 4282335296
1.3202956 -1.1678778 4.0587006 4282401089
0.94182467 -0.39286852 3.2923667 4282599756
0.95235473 -0.06197517 2.9627833 4282930007
0.59384918 0.14920968 2.7600842 4284182648
1.0362996 0.10942069 2.7923746 4283721067
0.65831572 0.17432894 2.7334831 4284511614
0.31614327 -0.10783124 3.0245864 4283127901
0.74311793 -0.020383932 2.9365416 4282798420
1.1950716 -0.5591616 3.4595275 4282533705
1.235835 0.14479263 2.7541978 4282335810
1.2448649 0.0073524551 2.8930976 4282072381
1.2518882 -0.10240193 3.0037692 4282072638
1.2644668 -0.29907379 3.1987085 4282138175
1.2762666 -0.48187667 3.3822093 4282072124
1.2867992 -0.64585501 3.544498 4282137917
1.2937059 -0.75434029 3.652266 4282137917
1.3073075 -0.96095598 3.8616009 4282072124
1.3136201 -1.0634141 3.9616818 4282137917
1.3215263 -1.1713283 4.075798 4282335039
0.95654714 0.11601131 2.7901504 4283193695
0.96553957 -0.09218438 3.0069895 4283589224
0.9702189 -0.031694766 2.9409385 4282732370
0.60390902 0.086698562 2.8344126 4283985012
0.22947943 -0.38049114 3.3159549 4282666836
1.078704 -0.28566346 3.1918783 4282995801
0.30394447 0.12345196 2.8092637 4283787376
1.1875622 -0.16696088 3.0798783 4282402118
1.2366885 0.14095743 2.7685924 4282203968
1.2452488 0.0099003818 2.902179 4282138174
1.2563375 -0.16267616 3.0718057 4282137918
1.2668995 -0.32761535 3.2375076 4282072125
1.2732556 -0.42341915 3.333446 4282137917
1.2845501 -0.60018289 3.5118058 4282138174
1.2962799 -0.78434724 3.6928108 4282006331
1.3039234 -0.90950114 3.8134856 4282072125
1.3158255 -1.0846405 3.9954205 4281808695
1.3223515 -1.182555 4.0948963 4282137660
0.97469974 0.1776998 2.7411251 4284380027
0.99443471 -0.52842617 3.4416666 4282402119
1.0286138 0.19893509 2.728018 4283391073
1.0405538 0.091138467 2.8260503 4282467913
0.2305506 0.076118998 2.8649497 4282995800
1.1075926 -0.81754422 3.7368946 4282204739
1.1137121 -0.22198004 3.1447835 4282402120
1.1756642 0.22910318 2.6976938 4284710022
1.2084589 0.22938307 2.6975026 4284775814
1.2363043 0.15587176 2.7644653 4282203969
1.2449501 0.023892846 2.896446 4282269761
1.253493 -0.091901608 3.0107677 4282072639
1.263954 -0.27320305 3.1935608 4282072381
1.27643 -0.46743333 3.3889899 4282137918
1.2885644 -0.65367949 3.5788567 4282335297
1.2951479 -0.76129228 3.6797049 4282006332
1.3058926 -0.92707145 3.8450572 4282006332
1.3137686 -1.0479093 3.9670329 4282137660
1.322099 -1.1888008 4.1074233 4282071867
0.94426012 -0.042842515 2.971436 4283655789
0.9566825 0.12196231 2.8087645 4283787118
0.96863049 0.2263605 2.7092509 4284841093
0.98455638 0.22657149 2.7083619 4284906629
1.0004822 0.22678246 2.7074728 4284906629
1.0282044 0.22761475 2.7096345 4284709764
1.0332106 0.22711369 2.7072761 4284709764
1.0441346 0.22781919 2.7087774 4284578436
1.0630139 0.22772494 2.7075009 4284446850
1.0753757 0.22789368 2.7081819 4284381314
1.0851219 0.20962954 2.7218096 4284446849
1.0939257 0.070292346 2.8642485 4283985526
1.1071534 0.22843128 2.7068706 4284381314
1.1131133 0.22801685 2.7057121 4284447107
1.1245735 0.22856286 2.7049966 4284512900
1.138679 0.2287906 2.7051902 4284578436
1.1442153 0.22842705 2.7047291 4284578693
1.1551208 0.22895569 2.7038331 4284644229
1.1629475 0.22887404 2.7035131 4284644229
1.1726365 0.22916102 2.7025275 4284710022
1.1858716 0.064738557 2.8676438 4284051061
1.193419 -0.035728373 2.966922 4283655016
1.2029207 0.22959009 2.7012796 4284775814
1.2188008 0.22974935 2.7015429 4284710278
1.2240014 0.2295246 2.7010186 4284710278
1.2360154 0.18460433 2.7452784 4283193435
1.1635472 0.06563969 2.8684981 4282402376
1.2563614 -0.074189551 3.0036511 4282600013
1.1292682 -0.13899234 3.0734091 4282929749
0.86890459 0.22557029 2.718205 4284447106
1.2850666 -0.59541345 3.5254178 4282006588
0.88483441 0.22577474 2.7173479 4284512642
1.303658 -0.88521868 3.814352 4282137918
0.90076435 0.22597918 2.716491 4284578435
1.0165465 -0.24537276 3.1853166 4283720553
0.92257905 0.052753963 2.8889563 4284314234
0.93292785 0.14042819 2.8028624 4284248441
0.947676 0.19662981 2.7455759 4284314235
0.95364803 0.2260018 2.7130737 4284775556
0.96469629 0.22475386 2.7162371 4284709507
0.97374511 -0.15097336 3.0957787 4283588967
0.98334396 0.22670972 2.7118635 4284906629
0.9960472 0.21446474 2.7255604 4284313719
1.0035198 0.081206664 2.8583536 4284379770
1.0140436 0.18211123 2.7560833 4284577664
1.0239084 -0.089201152 3.0276251 4283786603
1.0327705 0.22691531 2.7112837 4284709764
1.0479217 0.15331672 2.7814431 4283985011
1.0554872 0.073153265 2.8604801 4284182905
1.0648077 0.21284565 2.7228127 4284381056
0.87000412 -0.075070933 3.0234284 4283457638
0.67852223 0.18125997 2.7730896 4283985269
0.27953044 0.21800625 2.7499139 4284248956
0.69367957 0.22332145 2.7276323 4284249471
0.57135868 0.15328436 2.8029451 4284117370
0.51846266 0.22107273 2.7370591 4284249214
0.32731545 0.21861954 2.7473428 4284380284
0.94654334 -0.049888387 2.9931247 4283589739
0.65184736 0.14099419 2.8127632 4284050806
0.56115806 0.22131172 2.7347913 4284314750
0.77481151 0.14338709 2.8063176 4284051319
0.58217859 0.22189045 2.7336311 4284315006
0.38345689 0.038721211 2.9291751 4283655789
0.49760112 0.22035752 2.7387424 4284314749
0.61120188 0.22188906 2.7325115 4284315007
0.96240282 0.1628785 2.7860079 4283391588
0.8342942 0.12804544 2.8235583 4283259486
1.1516929 -0.06663014 3.009835 4282401862
1.017745 -0.16107127 3.1068904 4282863699
1.1734909 -0.31327778 3.2578957 4282336325
1.0104582 -0.31706133 3.2650566 4282863699
0.96697313 -0.3645092 3.3120506 4282995542
0.89710325 -0.35481495 3.309263 4283193180
1.3142705 -1.0400556 3.9818816 4282137917
0.50253046 0.22086824 2.7379162 4284446078
0.31139046 0.21841516 2.7481997 4284051578
0.52406347 0.21637264 2.7426243 4284117370
0.39656925 0.21750493 2.7456934 4284051834
0.33960012 0.18485229 2.7815852 4283919992
0.55031717 0.22148153 2.7353451 4284183420
0.29051641 0.20541967 2.7623889 4283985784
0.16728583 0.2158452 2.7566061 4283985784
0.68828118 0.14453766 2.8132753 4283655275
0.39103281 0.21943729 2.7439146 4284183163
0.4008297 0.21122573 2.7522461 4284117370
0.81977105 0.10842089 2.8410971 4283655018
0.70961058 -0.0731344 3.0259993 4283655532
0.22100806 0.17753084 2.7982311 4283589481
0.43729711 0.21467964 2.7470174 4284183164
0.44982219 0.0012478307 2.9627674 4283787633
0.26360217 0.21780185 2.7507708 4284183163
1.0931634 -0.37993518 3.3248527 4282995543
0.2850036 0.21754573 2.7505944 4284248956
0.29403231 0.21686296 2.7505369 4284248956
0.30324385 -0.027895689 2.9992969 4283786860
0.11854427 0.19230378 2.7830553 4284181875
-0.070882291 0.21350907 2.7687662 4284247926
-0.063880153 0.1714797 2.8117394 4283918961
-0.055764038 0.21288487 2.7685218 4284116596
0.37506533 -0.012637585 2.9790421 4283721325
-0.16246681 0.2114429 2.7739172 4283788146
-0.017821353 0.21371442 2.7674668 4283853940
-0.0071723331 0.21432672 2.7653387 4283853941
0.0079643801 0.21373066 2.7651174 4283854197
1.244103 0.058493573 2.8925545 4282203967
0.43567818 0.12989914 2.8372555 4283523945
0.71914655 -0.12670541 3.0920608 4282797648
0.2476773 0.21759745 2.7516274 4284117369
0.67068166 -0.17907347 3.1440597 4282930778
0.68792939 -0.32279366 3.2881362 4282930522
0.088393793 0.21555322 2.7601969 4283723127
0.50650537 -0.50058067 3.4753492 4282995542
0.92557544 0.065722957 2.8917134 4282533962
-0.28688449 0.20907784 2.7815239 4283853682
-0.2783249 0.20015611 2.7913511 4283722096
-0.26200831 0.21105616 2.7790489 4283788147
-0.24608135 0.21126056 2.7781918 4283853940
-0.36855617 0.18039095 2.8150909 4283787375
-0.22619858 0.21076424 2.7780943 4283919475
-0.42127222 0.20901217 2.7876172 4283919218
-0.47660172 0.20731609 2.7912388 4283787632
-0.19830027 0.21187378 2.7756212 4284247926
-0.45794758 0.20809269 2.7900658 4283853424
-0.58151418 0.20590711 2.7966089 4283524718
-0.16481388 0.06966804 2.9212201 4283392101
-0.56365746 0.2060543 2.7955775 4283656303
0.40204725 0.0092591047 2.9620254 4283260002
-0.13459161 0.21269143 2.7721937 4284445047
0.28412139 -0.013580963 2.9871576 4283589223
-0.11866434 0.21289584 2.771337 4284379511
0.30531466 -0.13145249 3.1053948 4283522660
0.11941406 0.080695093 2.8995495 4283720809
0.74081433 -0.011294849 2.9832706 4282599755
-0.88600063 0.14936268 2.8668892 4283129959
-0.44946438 0.11394539 2.8889163 4283260773
-0.83480287 0.20297728 2.8090196 4283458924
-0.82154286 0.20156872 2.8097126 4283656045
0.58027518 0.17108026 2.8075955 4282666063
0.22007465 0.12928428 2.8559997 4282600785
0.64043498 -0.021894258 2.9988594 4282205254
0.60752583 -0.11131895 3.087723 4282600013
0.14897472 -0.11780789 3.1091766 4282798421
1.2833596 -0.54615664 3.5033154 4282138174
0.16732116 -0.28003824 3.270021 4282666835
-1.1538534 0.19961023 2.8270307 4282932581
0.28823668 -0.42346174 3.4112644 4283127128
-0.86243075 0.19858509 2.81654 4283327081
-0.30978891 0.21044295 2.7816195 4283788146
-0.50090432 0.20799017 2.7919016 4283787889
-0.49039626 0.20791191 2.7923737 4283853425
-0.67609483 0.20574176 2.801327 4283853424
-0.25296167 0.075530268 2.9225054 4283062623
-1.0685685 0.19818206 2.8228159 4283195753
-0.097322918 0.073220782 2.9220498 4282864985
-0.079727732 -0.13454644 3.1323574 4282798936
-1.0287249 0.19872831 2.8207023 4283129960
-0.092685848 -0.15495999 3.1532774 4282864729
-1.0064795 0.16495685 2.8559637 4283063910
-0.99460465 0.20165403 2.8184631 4283130217
-0.97867954 0.20185842 2.8176064 4283195754
-0.96275431 0.2020628 2.8167493 4283196010
-0.68280536 0.12811349 2.8827667 4283261288
-0.94682914 0.20226717 2.8158927 4283261546
-0.93224955 0.18346374 2.8348866 4283195753
-0.92511564 0.20145132 2.8168936 4283261546
-0.91462702 0.20183039 2.8148618 4283327339
-0.90172267 0.19449341 2.8229711 4283196009
-0.89462787 0.19408591 2.8239615 4283261545
-0.88312799 0.20308472 2.8124657 4283393132
-1.0798717 0.20040031 2.8246529 4283130217
-0.86720258 0.20328909 2.8116088 4283458924
-1.0583012 0.20083654 2.8218899 4283196009
-0.84516418 0.20197633 2.8120284 4283458667
-1.2494007 0.19838397 2.8321712 4282932838
-1.2334763 0.19858834 2.8313146 4282932838
1.2384084 0.16809197 2.8092029 4281940796
0.25929064 0.11701407 2.87499 4282469199
0.57161832 -0.0041484036 2.9876089 4282534477
1.2651553 -0.25396216 3.2239199 4282138175
0.86398959 -0.37404642 3.3510444 4282467912
1.0119281 -0.40835381 3.385149 4282204482
1.2916907 -0.66821855 3.6359053 4282269503
1.3117121 -0.97720081 3.9478121 4282335040
0.91136682 -0.55791694 3.5323954 4282336325
-1.1220039 0.20001899 2.8253174 4282932837
-1.1060792 0.20022336 2.8244605 4283064166
-1.0901544 0.20042773 2.8236036 4283129959
-1.0742295 0.20063211 2.8227468 4283195496
-1.0560611 0.20072186 2.8235397 4283129960
-0.36007324 0.1379104 2.8697891 4282733914
-1.0378797 0.20080885 2.8243015 4283261545
-1.0264548 0.20124526 2.8201768 4283129960
-1.0046926 0.20077378 2.821754 4283195753
-0.17608979 -0.26796949 3.2708793 4282799450
-0.98442727 0.20071507 2.8209937 4283261545
-0.97582591 0.20093146 2.8212566 4283195753
-0.13879046 -0.029730745 3.0316105 4282799449
0.3585968 -0.51666921 3.5108843 4282271562
-0.034220576 -0.17558503 3.1806846 4282667092
1.2384834 0.16897038 2.8109818 4282138175
1.2455739 0.05823005 2.9204772 4282006588
1.2538359 -0.069581851 3.04884 4282138174
1.2642812 -0.23169374 3.211791 4282138174
1.275475 -0.40246603 3.3851643 4281874745
1.2847643 -0.55235213 3.5295551 4282006332
1.2962877 -0.72690243 3.7070799 4282137917
1.3055875 -0.87321055 3.8532085 4281808953
1.3128517 -0.98654866 3.9645815 4282203710
1.3258073 -1.1820847 4.1655369 4282400832
0.95806634 -0.11667677 3.1043341 4282270532
0.16144213 0.20118225 2.8031263 4284117112
0.99317145 -0.3396714 3.3213058 4282600013
1.0111455 -0.30027846 3.2990046 4282534220
1.0608497 -0.16903026 3.1537044 4282401862
1.1043249 -0.35306001 3.3488059 4282270275
1.1149725 -0.95741475 3.9427378 4282533190
1.1229665 -0.11387882 3.1032443 4283259228
1.1703967 -0.53249419 3.5263286 4282270275
1.1855384 -0.02015391 3.0121019 4282138175
1.2249241 -0.048505832 3.0307584 4282336068
1.2387726 0.14219493 2.8502815 4282006589
1.2436837 0.095345192 2.8931482 4281809209
1.2537917 -0.057018448 3.0510297 4282138175
1.2655097 -0.24054018 3.2315326 4281940796
1.2732972 -0.36374724 3.3551874 4282137917
1.2831208 -0.51703608 3.5025578 4281940795
1.2947328 -0.69566101 3.687227 4282006588
1.3135484 -0.98105764 3.9743357 4282203710
1.3226992 -1.1310133 4.1205716 4282006075
1.3306888 -1.1848285 4.1763129 4282269247
1.3537545 -0.47078717 3.466742 4283325280
0.99943298 -0.27679408 3.2736623 4282270276
-0.91183275 0.10990161 2.9475808 4282800994
0.7307601 -0.70333225 3.7192006 4282797648
1.2384911 0.17903981 2.8207593 4282006589
1.2447027 0.088241406 2.9111941 4282006589
1.2579974 -0.11329976 3.1195877 4281743416
1.2636704 -0.20338695 3.2057648 4282138175
1.2759093 -0.3943643 3.3946509 4282203968
1.2848687 -0.53579473 3.534946 4282072382
1.3049631 -0.84656656 3.8492362 4281940538
1.3143667 -0.99135834 3.9908004 4282269503
1.3239207 -1.1490122 4.1448379 4282335296
1.3306074 -1.2383173 4.2432919 4282466625
1.3659183 -0.90875334 3.908879 4282137917
0.57520735 -0.14611208 3.1609826 4282600785
0.63614231 -0.12528007 3.14693 4282732629
1.1144819 -0.82795733 3.838757 4282072638
1.1373184 -0.71527463 3.7209921 4282401604
1.1451617 0.12553188 2.8869238 4282270018
-0.89418715 0.16720915 2.8976998 4283064167
0.75582451 -0.52342594 3.5444391 4282271047
-0.87551481 0.16730052 2.8990304 4283129960
0.7848199 -0.31043917 3.334686 4282336840
1.2392312 0.17688286 2.8393028 4282269761
1.241969 0.1377535 2.8708074 4282269761
1.2536761 -0.040876426 3.0530658 4282269504
1.2659388 -0.23576219 3.243345 4282203711
1.2745943 -0.36942074 3.3781826 4282335296
1.2841514 -0.51029456 3.5236592 4282072124
1.2947543 -0.67764008 3.6903255 4282072125
1.3052622 -0.84130079 3.8514626 4282006331
1.3152741 -0.99856693 4.0121155 4281743159
1.3239069 -1.1309285 4.1407723 4282269503
1.3313673 -1.241876 4.2550774 4282400832
0.18499929 -0.050983131 3.0965457 4282667092
1.0933825 -0.195794 3.2104759 4282204225
1.1325388 -0.8247202 3.8419285 4282401347
